24.5000 2.5000 0.1000
24.5000 2.0000 0.1000
24.5000 1.5000 0.1000
24.5000 1.0000 0.1000
24.5000 0.5000 0.1000
24.5000 0.0000 0.1000
24.5000 -0.5000 0.1000
24.5000 -1.0000 0.1000
24.5000 -1.5000 0.1000
24.5000 -2.0000 0.1000
24.5000 -2.5000 0.1000
24.5000 -3.0000 0.1000
24.5000 -3.5000 0.1000
24.5000 -4.0000 0.1000
24.5000 -4.5000 0.1000
24.5000 -5.0000 0.1000
24.5000 -5.5000 0.1000
24.5000 -6.0000 0.1000
24.5000 -6.5000 0.1000
24.5000 -7.0000 0.1000
24.5000 -7.5000 0.1000
24.5000 -8.0000 0.1000
24.5000 -8.5000 0.1000
24.5000 -9.0000 0.1000
24.5000 -9.5000 0.1000
24.5000 -10.0000 0.0998
24.5000 -10.5000 0.0998
24.5000 -11.0000 0.1011
24.5000 -11.5000 0.1039
24.5000 -12.0000 0.1044
24.5000 -12.5000 0.0987
24.5000 -13.0000 0.0916
24.5000 -13.5000 0.1051
24.5000 -14.0000 0.0997
24.5000 -14.5000 0.0988
24.5000 -15.0000 0.0996
24.5000 -15.5000 0.1001
25.0000 2.5000 0.1000
25.0000 2.0000 0.1000
25.0000 1.5000 0.1000
25.0000 1.0000 0.1000
25.0000 0.5000 0.1000
25.0000 0.0000 0.1000
25.0000 -0.5000 0.1000
25.0000 -1.0000 0.1000
25.0000 -1.5000 0.1000
25.0000 -2.0000 0.1000
25.0000 -2.5000 0.1000
25.0000 -3.0000 0.1000
25.0000 -3.5000 0.1000
25.0000 -4.0000 0.1000
25.0000 -4.5000 0.1000
25.0000 -5.0000 0.1000
25.0000 -5.5000 0.1000
25.0000 -6.0000 0.1000
25.0000 -6.5000 0.1000
25.0000 -7.0000 0.1000
25.0000 -7.5000 0.1000
25.0000 -8.0000 0.1000
25.0000 -8.5000 0.1000
25.0000 -9.0000 0.1000
25.0000 -9.5000 0.0998
25.0000 -10.0000 0.1000
25.0000 -10.5000 0.1014
25.0000 -11.0000 0.1028
25.0000 -11.5000 0.0985
25.0000 -12.0000 0.0847
25.0000 -12.5000 0.0676
25.0000 -13.0000 0.0605
25.0000 -13.5000 0.1223
25.0000 -14.0000 0.1060
25.0000 -14.5000 0.1002
25.0000 -15.0000 0.0996
25.0000 -15.5000 0.0999
25.5000 2.5000 0.1000
25.5000 2.0000 0.1000
25.5000 1.5000 0.1000
25.5000 1.0000 0.1000
25.5000 0.5000 0.1000
25.5000 0.0000 0.1000
25.5000 -0.5000 0.1000
25.5000 -1.0000 0.1000
25.5000 -1.5000 0.1000
25.5000 -2.0000 0.1000
25.5000 -2.5000 0.1000
25.5000 -3.0000 0.1000
25.5000 -3.5000 0.1000
25.5000 -4.0000 0.1000
25.5000 -4.5000 0.1000
25.5000 -5.0000 0.1000
25.5000 -5.5000 0.1000
25.5000 -6.0000 0.1000
25.5000 -6.5000 0.1000
25.5000 -7.0000 0.1000
25.5000 -7.5000 0.1000
25.5000 -8.0000 0.1000
25.5000 -8.5000 0.1000
25.5000 -9.0000 0.1001
25.5000 -9.5000 0.0998
25.5000 -10.0000 0.1007
25.5000 -10.5000 0.1030
25.5000 -11.0000 0.1015
25.5000 -11.5000 0.0851
25.5000 -12.0000 0.0543
25.5000 -12.5000 0.0320
25.5000 -13.0000 0.0365
25.5000 -13.5000 0.1265
25.5000 -14.0000 0.1047
25.5000 -14.5000 0.0994
25.5000 -15.0000 0.0995
25.5000 -15.5000 0.1000
26.0000 2.5000 0.1000
26.0000 2.0000 0.1000
26.0000 1.5000 0.1000
26.0000 1.0000 0.1000
26.0000 0.5000 0.1000
26.0000 0.0000 0.1000
26.0000 -0.5000 0.1000
26.0000 -1.0000 0.1000
26.0000 -1.5000 0.1000
26.0000 -2.0000 0.1000
26.0000 -2.5000 0.1000
26.0000 -3.0000 0.1000
26.0000 -3.5000 0.1000
26.0000 -4.0000 0.1000
26.0000 -4.5000 0.1000
26.0000 -5.0000 0.1000
26.0000 -5.5000 0.1000
26.0000 -6.0000 0.1000
26.0000 -6.5000 0.1000
26.0000 -7.0000 0.1000
26.0000 -7.5000 0.1000
26.0000 -8.0000 0.1000
26.0000 -8.5000 0.1001
26.0000 -9.0000 0.1002
26.0000 -9.5000 0.1001
26.0000 -10.0000 0.1021
26.0000 -10.5000 0.1040
26.0000 -11.0000 0.0952
26.0000 -11.5000 0.0621
26.0000 -12.0000 0.0188
26.0000 -12.5000 0.0045
26.0000 -13.0000 0.0395
26.0000 -13.5000 0.1076
26.0000 -14.0000 0.0938
26.0000 -14.5000 0.0966
26.0000 -15.0000 0.0994
26.0000 -15.5000 0.1003
26.5000 2.5000 0.1000
26.5000 2.0000 0.1000
26.5000 1.5000 0.1000
26.5000 1.0000 0.1000
26.5000 0.5000 0.1000
26.5000 0.0000 0.1000
26.5000 -0.5000 0.1000
26.5000 -1.0000 0.1000
26.5000 -1.5000 0.1000
26.5000 -2.0000 0.1000
26.5000 -2.5000 0.1000
26.5000 -3.0000 0.1000
26.5000 -3.5000 0.1000
26.5000 -4.0000 0.1000
26.5000 -4.5000 0.1000
26.5000 -5.0000 0.1000
26.5000 -5.5000 0.1000
26.5000 -6.0000 0.1000
26.5000 -6.5000 0.1001
26.5000 -7.0000 0.1000
26.5000 -7.5000 0.0999
26.5000 -8.0000 0.0999
26.5000 -8.5000 0.0999
26.5000 -9.0000 0.0999
26.5000 -9.5000 0.1010
26.5000 -10.0000 0.1033
26.5000 -10.5000 0.1022
26.5000 -11.0000 0.0835
26.5000 -11.5000 0.0376
26.5000 -12.0000 0.0061
26.5000 -12.5000 0.0038
26.5000 -13.0000 0.0614
26.5000 -13.5000 0.0851
26.5000 -14.0000 0.0849
26.5000 -14.5000 0.0952
26.5000 -15.0000 0.0999
26.5000 -15.5000 0.1005
27.0000 2.5000 0.1000
27.0000 2.0000 0.1000
27.0000 1.5000 0.1000
27.0000 1.0000 0.1000
27.0000 0.5000 0.1000
27.0000 0.0000 0.1000
27.0000 -0.5000 0.1000
27.0000 -1.0000 0.1000
27.0000 -1.5000 0.0999
27.0000 -2.0000 0.0999
27.0000 -2.5000 0.1000
27.0000 -3.0000 0.1001
27.0000 -3.5000 0.1002
27.0000 -4.0000 0.1001
27.0000 -4.5000 0.1001
27.0000 -5.0000 0.1000
27.0000 -5.5000 0.0999
27.0000 -6.0000 0.1000
27.0000 -6.5000 0.1001
27.0000 -7.0000 0.0999
27.0000 -7.5000 0.0995
27.0000 -8.0000 0.0994
27.0000 -8.5000 0.0994
27.0000 -9.0000 0.0990
27.0000 -9.5000 0.1017
27.0000 -10.0000 0.1018
27.0000 -10.5000 0.0947
27.0000 -11.0000 0.0682
27.0000 -11.5000 0.0227
27.0000 -12.0000 0.0059
27.0000 -12.5000 0.0134
27.0000 -13.0000 0.0868
27.0000 -13.5000 0.0756
27.0000 -14.0000 0.0844
27.0000 -14.5000 0.0968
27.0000 -15.0000 0.1006
27.0000 -15.5000 0.1004
27.5000 2.5000 0.1000
27.5000 2.0000 0.1000
27.5000 1.5000 0.1001
27.5000 1.0000 0.1001
27.5000 0.5000 0.1000
27.5000 0.0000 0.1000
27.5000 -0.5000 0.1000
27.5000 -1.0000 0.1004
27.5000 -1.5000 0.0994
27.5000 -2.0000 0.0994
27.5000 -2.5000 0.0995
27.5000 -3.0000 0.0997
27.5000 -3.5000 0.0997
27.5000 -4.0000 0.0997
27.5000 -4.5000 0.0998
27.5000 -5.0000 0.1000
27.5000 -5.5000 0.0998
27.5000 -6.0000 0.0998
27.5000 -6.5000 0.0999
27.5000 -7.0000 0.0995
27.5000 -7.5000 0.0992
27.5000 -8.0000 0.1003
27.5000 -8.5000 0.1006
27.5000 -9.0000 0.0991
27.5000 -9.5000 0.1009
27.5000 -10.0000 0.0966
27.5000 -10.5000 0.0826
27.5000 -11.0000 0.0560
27.5000 -11.5000 0.0292
27.5000 -12.0000 0.0234
27.5000 -12.5000 0.0513
27.5000 -13.0000 0.1049
27.5000 -13.5000 0.0794
27.5000 -14.0000 0.0904
27.5000 -14.5000 0.0991
27.5000 -15.0000 0.1009
27.5000 -15.5000 0.1002
28.0000 2.5000 0.1000
28.0000 2.0000 0.1002
28.0000 1.5000 0.1002
28.0000 1.0000 0.1000
28.0000 0.5000 0.0996
28.0000 0.0000 0.0995
28.0000 -0.5000 0.0999
28.0000 -1.0000 0.1004
28.0000 -1.5000 0.0998
28.0000 -2.0000 0.0998
28.0000 -2.5000 0.0988
28.0000 -3.0000 0.0979
28.0000 -3.5000 0.0975
28.0000 -4.0000 0.0978
28.0000 -4.5000 0.0988
28.0000 -5.0000 0.0992
28.0000 -5.5000 0.1002
28.0000 -6.0000 0.0993
28.0000 -6.5000 0.0988
28.0000 -7.0000 0.0988
28.0000 -7.5000 0.1012
28.0000 -8.0000 0.1079
28.0000 -8.5000 0.1103
28.0000 -9.0000 0.1035
28.0000 -9.5000 0.1000
28.0000 -10.0000 0.0947
28.0000 -10.5000 0.0776
28.0000 -11.0000 0.0586
28.0000 -11.5000 0.0547
28.0000 -12.0000 0.0636
28.0000 -12.5000 0.0898
28.0000 -13.0000 0.1115
28.0000 -13.5000 0.0921
28.0000 -14.0000 0.0988
28.0000 -14.5000 0.1010
28.0000 -15.0000 0.1005
28.0000 -15.5000 0.0999
28.5000 2.5000 0.0997
28.5000 2.0000 0.0998
28.5000 1.5000 0.1003
28.5000 1.0000 0.1014
28.5000 0.5000 0.1019
28.5000 0.0000 0.1015
28.5000 -0.5000 0.1008
28.5000 -1.0000 0.1018
28.5000 -1.5000 0.0943
28.5000 -2.0000 0.0936
28.5000 -2.5000 0.0983
28.5000 -3.0000 0.1028
28.5000 -3.5000 0.1043
28.5000 -4.0000 0.1024
28.5000 -4.5000 0.1004
28.5000 -5.0000 0.1016
28.5000 -5.5000 0.0972
28.5000 -6.0000 0.1001
28.5000 -6.5000 0.1033
28.5000 -7.0000 0.1028
28.5000 -7.5000 0.0939
28.5000 -8.0000 0.0739
28.5000 -8.5000 0.0661
28.5000 -9.0000 0.0862
28.5000 -9.5000 0.0942
28.5000 -10.0000 0.0866
28.5000 -10.5000 0.0972
28.5000 -11.0000 0.1088
28.5000 -11.5000 0.1080
28.5000 -12.0000 0.1010
28.5000 -12.5000 0.0835
28.5000 -13.0000 0.0902
28.5000 -13.5000 0.0929
28.5000 -14.0000 0.0931
28.5000 -14.5000 0.0978
28.5000 -15.0000 0.1001
28.5000 -15.5000 0.1003
29.0000 2.5000 0.1000
29.0000 2.0000 0.1010
29.0000 1.5000 0.1028
29.0000 1.0000 0.1036
29.0000 0.5000 0.1020
29.0000 0.0000 0.0983
29.0000 -0.5000 0.0975
29.0000 -1.0000 0.1044
29.0000 -1.5000 0.0790
29.0000 -2.0000 0.0729
29.0000 -2.5000 0.0825
29.0000 -3.0000 0.0912
29.0000 -3.5000 0.0917
29.0000 -4.0000 0.0867
29.0000 -4.5000 0.0850
29.0000 -5.0000 0.0968
29.0000 -5.5000 0.0911
29.0000 -6.0000 0.0946
29.0000 -6.5000 0.1037
29.0000 -7.0000 0.1060
29.0000 -7.5000 0.0915
29.0000 -8.0000 0.0578
29.0000 -8.5000 0.0407
29.0000 -9.0000 0.0769
29.0000 -9.5000 0.0775
29.0000 -10.0000 0.0440
29.0000 -10.5000 0.0402
29.0000 -11.0000 0.0497
29.0000 -11.5000 0.0620
29.0000 -12.0000 0.0681
29.0000 -12.5000 0.0645
29.0000 -13.0000 0.0901
29.0000 -13.5000 0.0850
29.0000 -14.0000 0.0883
29.0000 -14.5000 0.0969
29.0000 -15.0000 0.1002
29.0000 -15.5000 0.1003
29.5000 2.5000 0.1015
29.5000 2.0000 0.1038
29.5000 1.5000 0.1046
29.5000 1.0000 0.1009
29.5000 0.5000 0.0900
29.5000 0.0000 0.0780
29.5000 -0.5000 0.0758
29.5000 -1.0000 0.0932
29.5000 -1.5000 0.0663
29.5000 -2.0000 0.0448
29.5000 -2.5000 0.0526
29.5000 -3.0000 0.0575
29.5000 -3.5000 0.0511
29.5000 -4.0000 0.0403
29.5000 -4.5000 0.0413
29.5000 -5.0000 0.0774
29.5000 -5.5000 0.0803
29.5000 -6.0000 0.0765
29.5000 -6.5000 0.0927
29.5000 -7.0000 0.1017
29.5000 -7.5000 0.0892
29.5000 -8.0000 0.0508
29.5000 -8.5000 0.0266
29.5000 -9.0000 0.0722
29.5000 -9.5000 0.0600
29.5000 -10.0000 0.0096
29.5000 -10.5000 0.0032
29.5000 -11.0000 0.0052
29.5000 -11.5000 0.0261
29.5000 -12.0000 0.0381
29.5000 -12.5000 0.0431
29.5000 -13.0000 0.0774
29.5000 -13.5000 0.0917
29.5000 -14.0000 0.0903
29.5000 -14.5000 0.0971
29.5000 -15.0000 0.1001
29.5000 -15.5000 0.1003
30.0000 2.5000 0.1035
30.0000 2.0000 0.1028
30.0000 1.5000 0.0961
30.0000 1.0000 0.0796
30.0000 0.5000 0.0546
30.0000 0.0000 0.0320
30.0000 -0.5000 0.0300
30.0000 -1.0000 0.0574
30.0000 -1.5000 0.0701
30.0000 -2.0000 0.0244
30.0000 -2.5000 0.0225
30.0000 -3.0000 0.0201
30.0000 -3.5000 0.0067
30.0000 -4.0000 0.0079
30.0000 -4.5000 0.0047
30.0000 -5.0000 0.0554
30.0000 -5.5000 0.0608
30.0000 -6.0000 0.0392
30.0000 -6.5000 0.0548
30.0000 -7.0000 0.0718
30.0000 -7.5000 0.0654
30.0000 -8.0000 0.0336
30.0000 -8.5000 0.0097
30.0000 -9.0000 0.0648
30.0000 -9.5000 0.0509
30.0000 -10.0000 0.0006
30.0000 -10.5000 0.0099
30.0000 -11.0000 0.0069
30.0000 -11.5000 0.0089
30.0000 -12.0000 0.0150
30.0000 -12.5000 0.0143
30.0000 -13.0000 0.0489
30.0000 -13.5000 0.1093
30.0000 -14.0000 0.0967
30.0000 -14.5000 0.0979
30.0000 -15.0000 0.0998
30.0000 -15.5000 0.1002
30.5000 2.5000 0.1004
30.5000 2.0000 0.0890
30.5000 1.5000 0.0654
30.5000 1.0000 0.0352
30.5000 0.5000 0.0033
30.5000 0.0000 0.0132
30.5000 -0.5000 0.0085
30.5000 -1.0000 0.0285
30.5000 -1.5000 0.0713
30.5000 -2.0000 0.0020
30.5000 -2.5000 0.0058
30.5000 -3.0000 0.0034
30.5000 -3.5000 0.0071
30.5000 -4.0000 0.0128
30.5000 -4.5000 0.0067
30.5000 -5.0000 0.0624
30.5000 -5.5000 0.0333
30.5000 -6.0000 0.0099
30.5000 -6.5000 0.0040
30.5000 -7.0000 0.0163
30.5000 -7.5000 0.0211
30.5000 -8.0000 0.0008
30.5000 -8.5000 0.0148
30.5000 -9.0000 0.0515
30.5000 -9.5000 0.0469
30.5000 -10.0000 0.0032
30.5000 -10.5000 0.0071
30.5000 -11.0000 0.0076
30.5000 -11.5000 0.0030
30.5000 -12.0000 0.0028
30.5000 -12.5000 0.0092
30.5000 -13.0000 0.0219
30.5000 -13.5000 0.1193
30.5000 -14.0000 0.0989
30.5000 -14.5000 0.0976
30.5000 -15.0000 0.0994
30.5000 -15.5000 0.1002
31.0000 2.5000 0.0906
31.0000 2.0000 0.0630
31.0000 1.5000 0.0230
31.0000 1.0000 0.0109
31.0000 0.5000 0.0287
31.0000 0.0000 0.0231
31.0000 -0.5000 0.0121
31.0000 -1.0000 0.0195
31.0000 -1.5000 0.0637
31.0000 -2.0000 0.0248
31.0000 -2.5000 0.0366
31.0000 -3.0000 0.0246
31.0000 -3.5000 0.0156
31.0000 -4.0000 0.0148
31.0000 -4.5000 0.0103
31.0000 -5.0000 0.0487
31.0000 -5.5000 0.0382
31.0000 -6.0000 0.0267
31.0000 -6.5000 0.0377
31.0000 -7.0000 0.0161
31.0000 -7.5000 0.0067
31.0000 -8.0000 0.0141
31.0000 -8.5000 0.0290
31.0000 -9.0000 0.0454
31.0000 -9.5000 0.0306
31.0000 -10.0000 0.0281
31.0000 -10.5000 0.0298
31.0000 -11.0000 0.0229
31.0000 -11.5000 0.0077
31.0000 -12.0000 0.0074
31.0000 -12.5000 0.0188
31.0000 -13.0000 0.0206
31.0000 -13.5000 0.1084
31.0000 -14.0000 0.0932
31.0000 -14.5000 0.0956
31.0000 -15.0000 0.0988
31.0000 -15.5000 0.1004
31.5000 2.5000 0.0823
31.5000 2.0000 0.0505
31.5000 1.5000 0.0112
31.5000 1.0000 0.0117
31.5000 0.5000 0.0157
31.5000 0.0000 0.0025
31.5000 -0.5000 0.0041
31.5000 -1.0000 0.0127
31.5000 -1.5000 0.0828
31.5000 -2.0000 0.0163
31.5000 -2.5000 0.0324
31.5000 -3.0000 0.0200
31.5000 -3.5000 0.0123
31.5000 -4.0000 0.0126
31.5000 -4.5000 0.0178
31.5000 -5.0000 0.0248
31.5000 -5.5000 0.0767
31.5000 -6.0000 0.0081
31.5000 -6.5000 0.0205
31.5000 -7.0000 0.0047
31.5000 -7.5000 0.0010
31.5000 -8.0000 0.0099
31.5000 -8.5000 0.0261
31.5000 -9.0000 0.0380
31.5000 -9.5000 0.0329
31.5000 -10.0000 0.0299
31.5000 -10.5000 0.0346
31.5000 -11.0000 0.0227
31.5000 -11.5000 0.0035
31.5000 -12.0000 0.0068
31.5000 -12.5000 0.0152
31.5000 -13.0000 0.0300
31.5000 -13.5000 0.0983
31.5000 -14.0000 0.0902
31.5000 -14.5000 0.0949
31.5000 -15.0000 0.0981
31.5000 -15.5000 0.1003
32.0000 2.5000 0.0831
32.0000 2.0000 0.0662
32.0000 1.5000 0.0543
32.0000 1.0000 0.0539
32.0000 0.5000 0.0594
32.0000 0.0000 0.0752
32.0000 -0.5000 0.0789
32.0000 -1.0000 0.0533
32.0000 -1.5000 0.1008
32.0000 -2.0000 0.0349
32.0000 -2.5000 0.0373
32.0000 -3.0000 0.0526
32.0000 -3.5000 0.0538
32.0000 -4.0000 0.0389
32.0000 -4.5000 0.0253
32.0000 -5.0000 0.0349
32.0000 -5.5000 0.1185
32.0000 -6.0000 0.0672
32.0000 -6.5000 0.0597
32.0000 -7.0000 0.0621
32.0000 -7.5000 0.0489
32.0000 -8.0000 0.0452
32.0000 -8.5000 0.0455
32.0000 -9.0000 0.0622
32.0000 -9.5000 0.0801
32.0000 -10.0000 0.0504
32.0000 -10.5000 0.0388
32.0000 -11.0000 0.0364
32.0000 -11.5000 0.0447
32.0000 -12.0000 0.0416
32.0000 -12.5000 0.0490
32.0000 -13.0000 0.0874
32.0000 -13.5000 0.0897
32.0000 -14.0000 0.0984
32.0000 -14.5000 0.0988
32.0000 -15.0000 0.0977
32.0000 -15.5000 0.0995
32.5000 2.5000 0.1109
32.5000 2.0000 0.1077
32.5000 1.5000 0.0882
32.5000 1.0000 0.0636
32.5000 0.5000 0.0537
32.5000 0.0000 0.0343
32.5000 -0.5000 0.0262
32.5000 -1.0000 0.0972
32.5000 -1.5000 0.0606
32.5000 -2.0000 0.0854
32.5000 -2.5000 0.0808
32.5000 -3.0000 0.0662
32.5000 -3.5000 0.0688
32.5000 -4.0000 0.0712
32.5000 -4.5000 0.0738
32.5000 -5.0000 0.0889
32.5000 -5.5000 0.0597
32.5000 -6.0000 0.0401
32.5000 -6.5000 0.0363
32.5000 -7.0000 0.0404
32.5000 -7.5000 0.0570
32.5000 -8.0000 0.0528
32.5000 -8.5000 0.0319
32.5000 -9.0000 0.0669
32.5000 -9.5000 0.0614
32.5000 -10.0000 0.0300
32.5000 -10.5000 0.0454
32.5000 -11.0000 0.0602
32.5000 -11.5000 0.0527
32.5000 -12.0000 0.0450
32.5000 -12.5000 0.0317
32.5000 -13.0000 0.0415
32.5000 -13.5000 0.0889
32.5000 -14.0000 0.0661
32.5000 -14.5000 0.0866
32.5000 -15.0000 0.1011
32.5000 -15.5000 0.1023
33.0000 2.5000 0.1034
33.0000 2.0000 0.0821
33.0000 1.5000 0.0376
33.0000 1.0000 0.0013
33.0000 0.5000 0.0049
33.0000 0.0000 0.0214
33.0000 -0.5000 0.0114
33.0000 -1.0000 0.0958
33.0000 -1.5000 0.0106
33.0000 -2.0000 0.0228
33.0000 -2.5000 0.0318
33.0000 -3.0000 0.0265
33.0000 -3.5000 0.0214
33.0000 -4.0000 0.0108
33.0000 -4.5000 0.0113
33.0000 -5.0000 0.0352
33.0000 -5.5000 0.0520
33.0000 -6.0000 0.0054
33.0000 -6.5000 0.0100
33.0000 -7.0000 0.0164
33.0000 -7.5000 0.0170
33.0000 -8.0000 0.0142
33.0000 -8.5000 0.0317
33.0000 -9.0000 0.0283
33.0000 -9.5000 0.0229
33.0000 -10.0000 0.0447
33.0000 -10.5000 0.0255
33.0000 -11.0000 0.0064
33.0000 -11.5000 0.0053
33.0000 -12.0000 0.0032
33.0000 -12.5000 0.0046
33.0000 -13.0000 0.0413
33.0000 -13.5000 0.0304
33.0000 -14.0000 0.0124
33.0000 -14.5000 0.0661
33.0000 -15.0000 0.0984
33.0000 -15.5000 0.1045
33.5000 2.5000 0.0928
33.5000 2.0000 0.0561
33.5000 1.5000 0.0038
33.5000 1.0000 0.0243
33.5000 0.5000 0.0264
33.5000 0.0000 0.0301
33.5000 -0.5000 0.0021
33.5000 -1.0000 0.1016
33.5000 -1.5000 0.0023
33.5000 -2.0000 0.0031
33.5000 -2.5000 0.0174
33.5000 -3.0000 0.0106
33.5000 -3.5000 0.0082
33.5000 -4.0000 0.0172
33.5000 -4.5000 0.0394
33.5000 -5.0000 0.0215
33.5000 -5.5000 0.0449
33.5000 -6.0000 0.0065
33.5000 -6.5000 0.0029
33.5000 -7.0000 0.0054
33.5000 -7.5000 0.0099
33.5000 -8.0000 0.0069
33.5000 -8.5000 0.0167
33.5000 -9.0000 0.0261
33.5000 -9.5000 0.0346
33.5000 -10.0000 0.0222
33.5000 -10.5000 0.0071
33.5000 -11.0000 0.0016
33.5000 -11.5000 0.0042
33.5000 -12.0000 0.0041
33.5000 -12.5000 0.0107
33.5000 -13.0000 0.0418
33.5000 -13.5000 0.0062
33.5000 -14.0000 0.0156
33.5000 -14.5000 0.0553
33.5000 -15.0000 0.0976
33.5000 -15.5000 0.1059
34.0000 2.5000 0.0750
34.0000 2.0000 0.0327
34.0000 1.5000 0.0026
34.0000 1.0000 0.0075
34.0000 0.5000 0.0028
34.0000 0.0000 0.0007
34.0000 -0.5000 0.0197
34.0000 -1.0000 0.0918
34.0000 -1.5000 0.0160
34.0000 -2.0000 0.0010
34.0000 -2.5000 0.0048
34.0000 -3.0000 0.0030
34.0000 -3.5000 0.0029
34.0000 -4.0000 0.0062
34.0000 -4.5000 0.0324
34.0000 -5.0000 0.0306
34.0000 -5.5000 0.0474
34.0000 -6.0000 0.0061
34.0000 -6.5000 0.0157
34.0000 -7.0000 0.0180
34.0000 -7.5000 0.0063
34.0000 -8.0000 0.0005
34.0000 -8.5000 0.0181
34.0000 -9.0000 0.0332
34.0000 -9.5000 0.0402
34.0000 -10.0000 0.0102
34.0000 -10.5000 0.0008
34.0000 -11.0000 0.0009
34.0000 -11.5000 0.0036
34.0000 -12.0000 0.0118
34.0000 -12.5000 0.0206
34.0000 -13.0000 0.0349
34.0000 -13.5000 0.0115
34.0000 -14.0000 0.0149
34.0000 -14.5000 0.0566
34.0000 -15.0000 0.0990
34.0000 -15.5000 0.1062
34.5000 2.5000 0.0511
34.5000 2.0000 0.0206
34.5000 1.5000 0.0213
34.5000 1.0000 0.0376
34.5000 0.5000 0.0413
34.5000 0.0000 0.0314
34.5000 -0.5000 0.0269
34.5000 -1.0000 0.0650
34.5000 -1.5000 0.0616
34.5000 -2.0000 0.0141
34.5000 -2.5000 0.0027
34.5000 -3.0000 0.0107
34.5000 -3.5000 0.0137
34.5000 -4.0000 0.0103
34.5000 -4.5000 0.0068
34.5000 -5.0000 0.0359
34.5000 -5.5000 0.0499
34.5000 -6.0000 0.0062
34.5000 -6.5000 0.0091
34.5000 -7.0000 0.0060
34.5000 -7.5000 0.0100
34.5000 -8.0000 0.0044
34.5000 -8.5000 0.0127
34.5000 -9.0000 0.0401
34.5000 -9.5000 0.0282
34.5000 -10.0000 0.0189
34.5000 -10.5000 0.0034
34.5000 -11.0000 0.0017
34.5000 -11.5000 0.0027
34.5000 -12.0000 0.0115
34.5000 -12.5000 0.0145
34.5000 -13.0000 0.0451
34.5000 -13.5000 0.0139
34.5000 -14.0000 0.0044
34.5000 -14.5000 0.0627
34.5000 -15.0000 0.1007
34.5000 -15.5000 0.1057
35.0000 2.5000 0.0288
35.0000 2.0000 0.0260
35.0000 1.5000 0.0511
35.0000 1.0000 0.0638
35.0000 0.5000 0.0542
35.0000 0.0000 0.0286
35.0000 -0.5000 0.0106
35.0000 -1.0000 0.0272
35.0000 -1.5000 0.0995
35.0000 -2.0000 0.0322
35.0000 -2.5000 0.0089
35.0000 -3.0000 0.0116
35.0000 -3.5000 0.0149
35.0000 -4.0000 0.0255
35.0000 -4.5000 0.0074
35.0000 -5.0000 0.0489
35.0000 -5.5000 0.0454
35.0000 -6.0000 0.0049
35.0000 -6.5000 0.0117
35.0000 -7.0000 0.0161
35.0000 -7.5000 0.0106
35.0000 -8.0000 0.0038
35.0000 -8.5000 0.0294
35.0000 -9.0000 0.0207
35.0000 -9.5000 0.0481
35.0000 -10.0000 0.0197
35.0000 -10.5000 0.0113
35.0000 -11.0000 0.0046
35.0000 -11.5000 0.0112
35.0000 -12.0000 0.0198
35.0000 -12.5000 0.0146
35.0000 -13.0000 0.0519
35.0000 -13.5000 0.0166
35.0000 -14.0000 0.0082
35.0000 -14.5000 0.0690
35.0000 -15.0000 0.1014
35.0000 -15.5000 0.1048
35.5000 2.5000 0.0204
35.5000 2.0000 0.0427
35.5000 1.5000 0.0643
35.5000 1.0000 0.0553
35.5000 0.5000 0.0309
35.5000 0.0000 0.0090
35.5000 -0.5000 0.0038
35.5000 -1.0000 0.0312
35.5000 -1.5000 0.0931
35.5000 -2.0000 0.0126
35.5000 -2.5000 0.0124
35.5000 -3.0000 0.0183
35.5000 -3.5000 0.0050
35.5000 -4.0000 0.0030
35.5000 -4.5000 0.0009
35.5000 -5.0000 0.0401
35.5000 -5.5000 0.0594
35.5000 -6.0000 0.0180
35.5000 -6.5000 0.0144
35.5000 -7.0000 0.0111
35.5000 -7.5000 0.0084
35.5000 -8.0000 0.0068
35.5000 -8.5000 0.0090
35.5000 -9.0000 0.0358
35.5000 -9.5000 0.0552
35.5000 -10.0000 0.0168
35.5000 -10.5000 0.0201
35.5000 -11.0000 0.0037
35.5000 -11.5000 0.0061
35.5000 -12.0000 0.0081
35.5000 -12.5000 0.0096
35.5000 -13.0000 0.0468
35.5000 -13.5000 0.0346
35.5000 -14.0000 0.0278
35.5000 -14.5000 0.0760
35.5000 -15.0000 0.1012
35.5000 -15.5000 0.1035
36.0000 2.5000 0.0317
36.0000 2.0000 0.0634
36.0000 1.5000 0.0716
36.0000 1.0000 0.0507
36.0000 0.5000 0.0344
36.0000 0.0000 0.0385
36.0000 -0.5000 0.0606
36.0000 -1.0000 0.0820
36.0000 -1.5000 0.0721
36.0000 -2.0000 0.0345
36.0000 -2.5000 0.0213
36.0000 -3.0000 0.0158
36.0000 -3.5000 0.0194
36.0000 -4.0000 0.0439
36.0000 -4.5000 0.0717
36.0000 -5.0000 0.1155
36.0000 -5.5000 0.0397
36.0000 -6.0000 0.0336
36.0000 -6.5000 0.0403
36.0000 -7.0000 0.0531
36.0000 -7.5000 0.0554
36.0000 -8.0000 0.0519
36.0000 -8.5000 0.0597
36.0000 -9.0000 0.0753
36.0000 -9.5000 0.0867
36.0000 -10.0000 0.0511
36.0000 -10.5000 0.0487
36.0000 -11.0000 0.0749
36.0000 -11.5000 0.0861
36.0000 -12.0000 0.0708
36.0000 -12.5000 0.0484
36.0000 -13.0000 0.0572
36.0000 -13.5000 0.0718
36.0000 -14.0000 0.0600
36.0000 -14.5000 0.0872
36.0000 -15.0000 0.1017
36.0000 -15.5000 0.1021
36.5000 2.5000 0.1428
36.5000 2.0000 0.1119
36.5000 1.5000 0.1042
36.5000 1.0000 0.1100
36.5000 0.5000 0.1080
36.5000 0.0000 0.0957
36.5000 -0.5000 0.0910
36.5000 -1.0000 0.1084
36.5000 -1.5000 0.0740
36.5000 -2.0000 0.0723
36.5000 -2.5000 0.0590
36.5000 -3.0000 0.0551
36.5000 -3.5000 0.0363
36.5000 -4.0000 0.0223
36.5000 -4.5000 0.0127
36.5000 -5.0000 0.0455
36.5000 -5.5000 0.1149
36.5000 -6.0000 0.0901
36.5000 -6.5000 0.0853
36.5000 -7.0000 0.0694
36.5000 -7.5000 0.0623
36.5000 -8.0000 0.0636
36.5000 -8.5000 0.0561
36.5000 -9.0000 0.0910
36.5000 -9.5000 0.0602
36.5000 -10.0000 0.0343
36.5000 -10.5000 0.0281
36.5000 -11.0000 0.0253
36.5000 -11.5000 0.0209
36.5000 -12.0000 0.0249
36.5000 -12.5000 0.0489
36.5000 -13.0000 0.0882
36.5000 -13.5000 0.1113
36.5000 -14.0000 0.1148
36.5000 -14.5000 0.1036
36.5000 -15.0000 0.0978
36.5000 -15.5000 0.0990
37.0000 2.5000 0.1116
37.0000 2.0000 0.0839
37.0000 1.5000 0.0711
37.0000 1.0000 0.0657
37.0000 0.5000 0.0614
37.0000 0.0000 0.0628
37.0000 -0.5000 0.0775
37.0000 -1.0000 0.1114
37.0000 -1.5000 0.0591
37.0000 -2.0000 0.0431
37.0000 -2.5000 0.0338
37.0000 -3.0000 0.0164
37.0000 -3.5000 0.0071
37.0000 -4.0000 0.0034
37.0000 -4.5000 0.0118
37.0000 -5.0000 0.0759
37.0000 -5.5000 0.0473
37.0000 -6.0000 0.0333
37.0000 -6.5000 0.0356
37.0000 -7.0000 0.0050
37.0000 -7.5000 0.0074
37.0000 -8.0000 0.0123
37.0000 -8.5000 0.0103
37.0000 -9.0000 0.0531
37.0000 -9.5000 0.0481
37.0000 -10.0000 0.0080
37.0000 -10.5000 0.0017
37.0000 -11.0000 0.0275
37.0000 -11.5000 0.0364
37.0000 -12.0000 0.0257
37.0000 -12.5000 0.0241
37.0000 -13.0000 0.0583
37.0000 -13.5000 0.1118
37.0000 -14.0000 0.1056
37.0000 -14.5000 0.1001
37.0000 -15.0000 0.0984
37.0000 -15.5000 0.0997
37.5000 2.5000 0.0770
37.5000 2.0000 0.0571
37.5000 1.5000 0.0508
37.5000 1.0000 0.0539
37.5000 0.5000 0.0630
37.5000 0.0000 0.0748
37.5000 -0.5000 0.0905
37.5000 -1.0000 0.1103
37.5000 -1.5000 0.0710
37.5000 -2.0000 0.0642
37.5000 -2.5000 0.0583
37.5000 -3.0000 0.0550
37.5000 -3.5000 0.0462
37.5000 -4.0000 0.0410
37.5000 -4.5000 0.0429
37.5000 -5.0000 0.0958
37.5000 -5.5000 0.0387
37.5000 -6.0000 0.0364
37.5000 -6.5000 0.0300
37.5000 -7.0000 0.0145
37.5000 -7.5000 0.0314
37.5000 -8.0000 0.0321
37.5000 -8.5000 0.0190
37.5000 -9.0000 0.0502
37.5000 -9.5000 0.0423
37.5000 -10.0000 0.0194
37.5000 -10.5000 0.0045
37.5000 -11.0000 0.0606
37.5000 -11.5000 0.0881
37.5000 -12.0000 0.0825
37.5000 -12.5000 0.0702
37.5000 -13.0000 0.0786
37.5000 -13.5000 0.1055
37.5000 -14.0000 0.1012
37.5000 -14.5000 0.0991
37.5000 -15.0000 0.0990
37.5000 -15.5000 0.1000
38.0000 2.5000 0.0538
38.0000 2.0000 0.0543
38.0000 1.5000 0.0651
38.0000 1.0000 0.0786
38.0000 0.5000 0.0913
38.0000 0.0000 0.1017
38.0000 -0.5000 0.1088
38.0000 -1.0000 0.1139
38.0000 -1.5000 0.0852
38.0000 -2.0000 0.0866
38.0000 -2.5000 0.0903
38.0000 -3.0000 0.0891
38.0000 -3.5000 0.0870
38.0000 -4.0000 0.0767
38.0000 -4.5000 0.0703
38.0000 -5.0000 0.0894
38.0000 -5.5000 0.0706
38.0000 -6.0000 0.0728
38.0000 -6.5000 0.0563
38.0000 -7.0000 0.0071
38.0000 -7.5000 0.0149
38.0000 -8.0000 0.0141
38.0000 -8.5000 0.0057
38.0000 -9.0000 0.0621
38.0000 -9.5000 0.0442
38.0000 -10.0000 0.0190
38.0000 -10.5000 0.0060
38.0000 -11.0000 0.0700
38.0000 -11.5000 0.1059
38.0000 -12.0000 0.1075
38.0000 -12.5000 0.0980
38.0000 -13.0000 0.0958
38.0000 -13.5000 0.1005
38.0000 -14.0000 0.0994
38.0000 -14.5000 0.0991
38.0000 -15.0000 0.0995
38.0000 -15.5000 0.1001
38.5000 2.5000 0.0650
38.5000 2.0000 0.0801
38.5000 1.5000 0.0943
38.5000 1.0000 0.1044
38.5000 0.5000 0.1104
38.5000 0.0000 0.1122
38.5000 -0.5000 0.1108
38.5000 -1.0000 0.1075
38.5000 -1.5000 0.0958
38.5000 -2.0000 0.0997
38.5000 -2.5000 0.1015
38.5000 -3.0000 0.1031
38.5000 -3.5000 0.1009
38.5000 -4.0000 0.0962
38.5000 -4.5000 0.0879
38.5000 -5.0000 0.0913
38.5000 -5.5000 0.0955
38.5000 -6.0000 0.0995
38.5000 -6.5000 0.0836
38.5000 -7.0000 0.0422
38.5000 -7.5000 0.0199
38.5000 -8.0000 0.0246
38.5000 -8.5000 0.0390
38.5000 -9.0000 0.0721
38.5000 -9.5000 0.0520
38.5000 -10.0000 0.0141
38.5000 -10.5000 0.0027
38.5000 -11.0000 0.0652
38.5000 -11.5000 0.1030
38.5000 -12.0000 0.1088
38.5000 -12.5000 0.1036
38.5000 -13.0000 0.1007
38.5000 -13.5000 0.0993
38.5000 -14.0000 0.0993
38.5000 -14.5000 0.0996
38.5000 -15.0000 0.0999
38.5000 -15.5000 0.1001
39.0000 2.5000 0.0915
39.0000 2.0000 0.1026
39.0000 1.5000 0.1081
39.0000 1.0000 0.1095
39.0000 0.5000 0.1084
39.0000 0.0000 0.1060
39.0000 -0.5000 0.1032
39.0000 -1.0000 0.1009
39.0000 -1.5000 0.1009
39.0000 -2.0000 0.1016
39.0000 -2.5000 0.1023
39.0000 -3.0000 0.1022
39.0000 -3.5000 0.1025
39.0000 -4.0000 0.1007
39.0000 -4.5000 0.0981
39.0000 -5.0000 0.0973
39.0000 -5.5000 0.1013
39.0000 -6.0000 0.1063
39.0000 -6.5000 0.0981
39.0000 -7.0000 0.0748
39.0000 -7.5000 0.0620
39.0000 -8.0000 0.0657
39.0000 -8.5000 0.0666
39.0000 -9.0000 0.0796
39.0000 -9.5000 0.0584
39.0000 -10.0000 0.0090
39.0000 -10.5000 0.0001
39.0000 -11.0000 0.0597
39.0000 -11.5000 0.0978
39.0000 -12.0000 0.1053
39.0000 -12.5000 0.1023
39.0000 -13.0000 0.1004
39.0000 -13.5000 0.0997
39.0000 -14.0000 0.0998
39.0000 -14.5000 0.0999
39.0000 -15.0000 0.1000
39.0000 -15.5000 0.1000
39.5000 2.5000 0.1041
39.5000 2.0000 0.1065
39.5000 1.5000 0.1056
39.5000 1.0000 0.1035
39.5000 0.5000 0.1015
39.5000 0.0000 0.1000
39.5000 -0.5000 0.0992
39.5000 -1.0000 0.0989
39.5000 -1.5000 0.1009
39.5000 -2.0000 0.1007
39.5000 -2.5000 0.1003
39.5000 -3.0000 0.1004
39.5000 -3.5000 0.1005
39.5000 -4.0000 0.1008
39.5000 -4.5000 0.1004
39.5000 -5.0000 0.1004
39.5000 -5.5000 0.1005
39.5000 -6.0000 0.1041
39.5000 -6.5000 0.1027
39.5000 -7.0000 0.0946
39.5000 -7.5000 0.0908
39.5000 -8.0000 0.0915
39.5000 -8.5000 0.0855
39.5000 -9.0000 0.0897
39.5000 -9.5000 0.0627
39.5000 -10.0000 0.0025
39.5000 -10.5000 0.0066
39.5000 -11.0000 0.0605
39.5000 -11.5000 0.0958
39.5000 -12.0000 0.1034
39.5000 -12.5000 0.1013
39.5000 -13.0000 0.1000
39.5000 -13.5000 0.1001
39.5000 -14.0000 0.1000
39.5000 -14.5000 0.1000
39.5000 -15.0000 0.1000
39.5000 -15.5000 0.1000
40.0000 2.5000 0.1037
40.0000 2.0000 0.1024
40.0000 1.5000 0.1007
40.0000 1.0000 0.0996
40.0000 0.5000 0.0991
40.0000 0.0000 0.0991
40.0000 -0.5000 0.0993
40.0000 -1.0000 0.0996
40.0000 -1.5000 0.1001
40.0000 -2.0000 0.0999
40.0000 -2.5000 0.0999
40.0000 -3.0000 0.0998
40.0000 -3.5000 0.1000
40.0000 -4.0000 0.1001
40.0000 -4.5000 0.1003
40.0000 -5.0000 0.1005
40.0000 -5.5000 0.0997
40.0000 -6.0000 0.1014
40.0000 -6.5000 0.1021
40.0000 -7.0000 0.1010
40.0000 -7.5000 0.1010
40.0000 -8.0000 0.1007
40.0000 -8.5000 0.0955
40.0000 -9.0000 0.0972
40.0000 -9.5000 0.0731
40.0000 -10.0000 0.0313
40.0000 -10.5000 0.0327
40.0000 -11.0000 0.0720
40.0000 -11.5000 0.0976
40.0000 -12.0000 0.1026
40.0000 -12.5000 0.1009
40.0000 -13.0000 0.0999
40.0000 -13.5000 0.1001
40.0000 -14.0000 0.1000
40.0000 -14.5000 0.1000
40.0000 -15.0000 0.1000
40.0000 -15.5000 0.1000
40.5000 2.5000 0.0993
40.5000 2.0000 0.1003
40.5000 1.5000 0.1007
40.5000 1.0000 0.1007
40.5000 0.5000 0.1004
40.5000 0.0000 0.1002
40.5000 -0.5000 0.1000
40.5000 -1.0000 0.0999
40.5000 -1.5000 0.1001
40.5000 -2.0000 0.1001
40.5000 -2.5000 0.1001
40.5000 -3.0000 0.1000
40.5000 -3.5000 0.1001
40.5000 -4.0000 0.1000
40.5000 -4.5000 0.1000
40.5000 -5.0000 0.0999
40.5000 -5.5000 0.1002
40.5000 -6.0000 0.0999
40.5000 -6.5000 0.0994
40.5000 -7.0000 0.0990
40.5000 -7.5000 0.0985
40.5000 -8.0000 0.0988
40.5000 -8.5000 0.1019
40.5000 -9.0000 0.1023
40.5000 -9.5000 0.1105
40.5000 -10.0000 0.1303
40.5000 -10.5000 0.1299
40.5000 -11.0000 0.1107
40.5000 -11.5000 0.0989
40.5000 -12.0000 0.0979
40.5000 -12.5000 0.0995
40.5000 -13.0000 0.1001
40.5000 -13.5000 0.0999
40.5000 -14.0000 0.1000
40.5000 -14.5000 0.1000
40.5000 -15.0000 0.1000
40.5000 -15.5000 0.1000
41.0000 2.5000 0.1003
41.0000 2.0000 0.1004
41.0000 1.5000 0.1003
41.0000 1.0000 0.1001
41.0000 0.5000 0.1000
41.0000 0.0000 0.0999
41.0000 -0.5000 0.0999
41.0000 -1.0000 0.1000
41.0000 -1.5000 0.1000
41.0000 -2.0000 0.1000
41.0000 -2.5000 0.1000
41.0000 -3.0000 0.1000
41.0000 -3.5000 0.1000
41.0000 -4.0000 0.1000
41.0000 -4.5000 0.1000
41.0000 -5.0000 0.1000
41.0000 -5.5000 0.1001
41.0000 -6.0000 0.1001
41.0000 -6.5000 0.1000
41.0000 -7.0000 0.0999
41.0000 -7.5000 0.0996
41.0000 -8.0000 0.0996
41.0000 -8.5000 0.1010
41.0000 -9.0000 0.1024
41.0000 -9.5000 0.1003
41.0000 -10.0000 0.1064
41.0000 -10.5000 0.1063
41.0000 -11.0000 0.1003
41.0000 -11.5000 0.0977
41.0000 -12.0000 0.0988
41.0000 -12.5000 0.1000
41.0000 -13.0000 0.1001
41.0000 -13.5000 0.1000
41.0000 -14.0000 0.1000
41.0000 -14.5000 0.1000
41.0000 -15.0000 0.1000
41.0000 -15.5000 0.1000
41.5000 2.5000 0.1002
41.5000 2.0000 0.1001
41.5000 1.5000 0.1000
41.5000 1.0000 0.0999
41.5000 0.5000 0.1000
41.5000 0.0000 0.1000
41.5000 -0.5000 0.1000
41.5000 -1.0000 0.1000
41.5000 -1.5000 0.1000
41.5000 -2.0000 0.1000
41.5000 -2.5000 0.1000
41.5000 -3.0000 0.1000
41.5000 -3.5000 0.1000
41.5000 -4.0000 0.1000
41.5000 -4.5000 0.1000
41.5000 -5.0000 0.1000
41.5000 -5.5000 0.1000
41.5000 -6.0000 0.1000
41.5000 -6.5000 0.1001
41.5000 -7.0000 0.1001
41.5000 -7.5000 0.1000
41.5000 -8.0000 0.0998
41.5000 -8.5000 0.1002
41.5000 -9.0000 0.1012
41.5000 -9.5000 0.0983
41.5000 -10.0000 0.0992
41.5000 -10.5000 0.0992
41.5000 -11.0000 0.0983
41.5000 -11.5000 0.0987
41.5000 -12.0000 0.0998
41.5000 -12.5000 0.1002
41.5000 -13.0000 0.1001
41.5000 -13.5000 0.1000
41.5000 -14.0000 0.1000
41.5000 -14.5000 0.1000
41.5000 -15.0000 0.1000
41.5000 -15.5000 0.1000
42.0000 2.5000 0.1000
42.0000 2.0000 0.1000
42.0000 1.5000 0.1000
42.0000 1.0000 0.1000
42.0000 0.5000 0.1000
42.0000 0.0000 0.1000
42.0000 -0.5000 0.1000
42.0000 -1.0000 0.1000
42.0000 -1.5000 0.1000
42.0000 -2.0000 0.1000
42.0000 -2.5000 0.1000
42.0000 -3.0000 0.1000
42.0000 -3.5000 0.1000
42.0000 -4.0000 0.1000
42.0000 -4.5000 0.1000
42.0000 -5.0000 0.1000
42.0000 -5.5000 0.1000
42.0000 -6.0000 0.1000
42.0000 -6.5000 0.1000
42.0000 -7.0000 0.1000
42.0000 -7.5000 0.1000
42.0000 -8.0000 0.0999
42.0000 -8.5000 0.0999
42.0000 -9.0000 0.1002
42.0000 -9.5000 0.0993
42.0000 -10.0000 0.0991
42.0000 -10.5000 0.0992
42.0000 -11.0000 0.0993
42.0000 -11.5000 0.0998
42.0000 -12.0000 0.1001
42.0000 -12.5000 0.1001
42.0000 -13.0000 0.1000
42.0000 -13.5000 0.1000
42.0000 -14.0000 0.1000
42.0000 -14.5000 0.1000
42.0000 -15.0000 0.1000
42.0000 -15.5000 0.1000
42.5000 2.5000 0.1000
42.5000 2.0000 0.1000
42.5000 1.5000 0.1000
42.5000 1.0000 0.1000
42.5000 0.5000 0.1000
42.5000 0.0000 0.1000
42.5000 -0.5000 0.1000
42.5000 -1.0000 0.1000
42.5000 -1.5000 0.1000
42.5000 -2.0000 0.1000
42.5000 -2.5000 0.1000
42.5000 -3.0000 0.1000
42.5000 -3.5000 0.1000
42.5000 -4.0000 0.1000
42.5000 -4.5000 0.1000
42.5000 -5.0000 0.1000
42.5000 -5.5000 0.1000
42.5000 -6.0000 0.1000
42.5000 -6.5000 0.1000
42.5000 -7.0000 0.1000
42.5000 -7.5000 0.1000
42.5000 -8.0000 0.1000
42.5000 -8.5000 0.0999
42.5000 -9.0000 0.0999
42.5000 -9.5000 0.1001
42.5000 -10.0000 0.1000
42.5000 -10.5000 0.1000
42.5000 -11.0000 0.1001
42.5000 -11.5000 0.1001
42.5000 -12.0000 0.1001
42.5000 -12.5000 0.1000
42.5000 -13.0000 0.1000
42.5000 -13.5000 0.1000
42.5000 -14.0000 0.1000
42.5000 -14.5000 0.1000
42.5000 -15.0000 0.1000
42.5000 -15.5000 0.1000
